-5.80499983 4.69299984 6.39499998
-5.79799986 4.69199991 6.38700008
-5.79699993 4.69199991 6.37699986
-5.79099989 4.69099998 6.36800003
-5.78399992 4.69000006 6.36000013
-5.81899977 4.70599985 6.39599991
-5.81099987 4.70499992 6.38800001
-5.80700016 4.70400000 6.37900019
-5.80299997 4.70400000 6.36999989
-5.80000019 4.70300007 6.36000013
-5.79600000 4.70300007 6.35099983
-5.79099989 4.70200014 6.34200001
-5.78800011 4.70100021 6.33199978
-5.78299999 4.70100021 6.32399988
-5.77699995 4.69999981 6.31500006
-5.77299976 4.69899988 6.30600023
-5.76499987 4.69799995 6.29899979
-5.76599979 4.69799995 6.28800011
-5.76399994 4.69799995 6.27699995
-5.75600004 4.69700003 6.26999998
-5.75500011 4.69700003 6.25899982
-5.75000000 4.69600010 6.25000000
-5.82100010 4.71299982 6.39699984
-5.81500006 4.71299982 6.38800001
-5.81099987 4.71199989 6.37900019
-5.80800009 4.71199989 6.36899996
-5.80399990 4.71099997 6.36000013
-5.80100012 4.71099997 6.34999990
-5.79500008 4.71000004 6.34200001
-5.79300022 4.71000004 6.33199978
-5.79400015 4.71000004 6.32100010
-5.78399992 4.70800018 6.31400013
-5.77899981 4.70800018 6.30499983
-5.77699995 4.70699978 6.29500008
-5.77099991 4.70599985 6.28700018
-5.76900005 4.70599985 6.27699995
-5.76399994 4.70599985 6.26800013
-5.76000023 4.70499992 6.25899982
-5.75699997 4.70499992 6.24900007
-5.75299978 4.70400000 6.23999977
-5.75099993 4.70400000 6.23000002
-5.74599981 4.70300007 6.22100019
-5.73899984 4.70200014 6.21299982
-5.73699999 4.70200014 6.20300007
-5.73199987 4.70100021 6.19399977
-5.71500015 4.70100021 6.01499987
-5.81699991 4.72300005 6.39200020
-5.81300020 4.72300005 6.38299990
-5.80900002 4.72200012 6.37300014
-5.80700016 4.72200012 6.36299992
-5.80299997 4.72100019 6.35400009
-5.79899979 4.72100019 6.34499979
-5.79600000 4.72100019 6.33500004
-5.79199982 4.71999979 6.32600021
-5.79899979 4.72100019 6.31099987
-5.78299999 4.71899986 6.30800009
-5.77899981 4.71799994 6.29899979
-5.77600002 4.71799994 6.28900003
-5.77299976 4.71700001 6.27899981
-5.77199984 4.71700001 6.26900005
-5.76900005 4.71700001 6.25899982
-5.76599979 4.71700001 6.24900007
-5.76100016 4.71600008 6.24100018
-5.75899982 4.71600008 6.23099995
-5.75500011 4.71500015 6.22100019
-5.75199986 4.71500015 6.21099997
-5.74700022 4.71400023 6.20300007
-5.74399996 4.71400023 6.19299984
-5.70699978 4.70900011 6.09999990
-5.70100021 4.70800018 6.09100008
-5.71600008 4.71199989 6.01900005
-5.71000004 4.71099997 6.01000023
-5.69799995 4.70900011 6.00500011
-5.81500006 4.73400021 6.40000010
-5.81199980 4.73299980 6.39099979
-5.80900002 4.73299980 6.38100004
-5.80499983 4.73199987 6.37200022
-5.80100012 4.73199987 6.36299992
-5.79799986 4.73099995 6.35300016
-5.79400015 4.73099995 6.34299994
-5.79199982 4.73099995 6.33300018
-5.80499983 4.73299980 6.31599998
-5.79099989 4.73099995 6.31099987
-5.78299999 4.73000002 6.30399990
-5.77899981 4.72900009 6.29500008
-5.77699995 4.72900009 6.28499985
-5.77099991 4.72800016 6.27600002
-5.76800013 4.72800016 6.26700020
-5.76800013 4.72800016 6.25600004
-5.76200008 4.72700024 6.24800014
-5.76000023 4.72700024 6.23799992
-5.75600004 4.72599983 6.22800016
-5.75299978 4.72599983 6.21799994
-5.75099993 4.72599983 6.20900011
-5.74800014 4.72499990 6.19899988
-5.71899986 4.72200012 6.10200024
-5.71400023 4.72100019 6.09299994
-5.71099997 4.72100019 6.08300018
-5.68900013 4.71799994 6.02699995
-5.70300007 4.72100019 6.01000023
-5.69700003 4.71999979 6.00199986
-5.68100023 4.71700001 5.99800014
-5.67100000 4.71500015 5.99200010
-5.66800022 4.71500015 5.98199987
-5.80800009 4.73899984 6.39300013
-5.80299997 4.73799992 6.38399982
-5.80200005 4.73799992 6.37400007
-5.79799986 4.73799992 6.36499977
-5.79300022 4.73699999 6.35599995
-5.79199982 4.73699999 6.34499979
-5.78900003 4.73699999 6.33599997
-5.79099989 4.73699999 6.32299995
-5.83400011 4.74499989 6.29099989
-5.79799986 4.73899984 6.29699993
-5.77600002 4.73500013 6.29699993
-5.77099991 4.73400021 6.28800011
-5.76999998 4.73400021 6.27799988
-5.76599979 4.73400021 6.26900005
-5.76399994 4.73299980 6.25899982
-5.76200008 4.73299980 6.24800014
-5.75799990 4.73299980 6.23899984
-5.75299978 4.73199987 6.23000002
-5.75299978 4.73199987 6.21899986
-5.75099993 4.73199987 6.20900011
-5.75099993 4.73199987 6.19799995
-5.71899986 4.72900009 6.10200024
-5.71500015 4.72800016 6.09299994
-5.72100019 4.72900009 6.07999992
-5.69500017 4.72499990 6.03599977
-5.69199991 4.72499990 6.02699995
-5.69600010 4.72599983 6.01399994
-5.69199991 4.72499990 6.00500011
-5.68599987 4.72499990 5.99700022
-5.67899990 4.72300005 5.98899984
-5.67100000 4.72200012 5.98099995
-5.66300011 4.72100019 5.97399998
-5.79699993 4.74800014 6.40100002
-5.79099989 4.74700022 6.39300013
-5.79199982 4.74700022 6.38100004
-5.78900003 4.74700022 6.37200022
-5.78700018 4.74700022 6.36100006
-5.77899981 4.74499989 6.35400009
-5.77899981 4.74599981 6.34299994
-5.77600002 4.74499989 6.33300018
-5.77299976 4.74499989 6.32299995
-5.76900005 4.74399996 6.31400013
-5.77899981 4.74599981 6.29799986
-5.82999992 4.75600004 6.26300001
-5.76700020 4.74499989 6.28100014
-5.76100016 4.74399996 6.27400017
-5.75799990 4.74300003 6.26399994
-5.75299978 4.74300003 6.25500011
-5.75099993 4.74200010 6.24499989
-5.74900007 4.74200010 6.23400021
-5.74700022 4.74200010 6.22399998
-5.74300003 4.74100018 6.21600008
-5.73000002 4.74100018 6.11100006
-5.71899986 4.73899984 6.10500002
-5.71400023 4.73899984 6.09600019
-5.69799995 4.73699999 6.04799986
-5.69700003 4.73699999 6.03800011
-5.69299984 4.73600006 6.02899981
-5.69299984 4.73600006 6.01800013
-5.69500017 4.73699999 6.00600004
-5.68900013 4.73600006 5.99700022
-5.68699980 4.73600006 5.98799992
-5.67899990 4.73500013 5.98000002
-5.85799980 4.77199984 6.25799990
-5.84600019 4.76999998 6.25299978
-5.83500004 4.76900005 6.24700022
-5.81899977 4.76599979 6.24300003
-5.74900007 4.75299978 6.26499987
-5.74399996 4.75199986 6.25699997
-5.74100018 4.75199986 6.24700022
-5.73799992 4.75199986 6.23699999
-5.73199987 4.75099993 6.22900009
-5.73299980 4.75099993 6.21799994
-5.71799994 4.75000000 6.11399984
-5.71199989 4.74900007 6.10599995
-5.69299984 4.74700022 6.04799986
-5.69099998 4.74700022 6.03800011
-5.68900013 4.74700022 6.02799988
-5.68800020 4.74700022 6.01700020
-5.69000006 4.74700022 6.00500011
-5.68900013 4.74800014 5.99499989
-5.68400002 4.74700022 5.98600006
-5.67999983 4.74599981 5.97700024
-5.82399988 4.77199984 6.24100018
-5.71199989 4.75500011 6.12799978
-5.71299982 4.75500011 6.11600018
-5.69199991 4.75299978 6.04899979
-5.68800020 4.75199986 6.03999996
-5.68800020 4.75199986 6.02899981
-5.68699980 4.75199986 6.01800013
-5.68699980 4.75299978 6.00699997
-5.68499994 4.75199986 5.99700022
-5.68300009 4.75199986 5.98699999
-5.67700005 4.75099993 5.97900009
-5.68100023 4.76200008 6.06899977
-5.67999983 4.76200008 6.05800009
-5.67799997 4.76200008 6.04799986
-5.67799997 4.76200008 6.03700018
-5.67799997 4.76200008 6.02600002
-5.67700005 4.76200008 6.01499987
-5.67700005 4.76200008 6.00500011
-5.67700005 4.76200008 5.99399996
-5.67399979 4.76200008 5.98400021
-5.81199980 4.79199982 6.23899984
-5.55600023 4.74800014 6.20400000
-5.67100000 4.77099991 6.03999996
-5.66300011 4.76999998 6.03299999
-5.66699982 4.77099991 6.01999998
-5.66800022 4.77099991 6.00899982
-5.66900015 4.77099991 5.99700022
-5.81099987 4.79699993 6.25299978
-5.80800009 4.79600000 6.24300003
-5.66499996 4.77600002 6.02299976
-5.65899992 4.77500010 6.01499987
-5.66699982 4.77699995 6.00000000
-5.82200003 4.80999994 6.27199984
-5.81300020 4.80800009 6.26599979
-5.83599997 4.82299995 6.28299999
-5.82700014 4.82100010 6.27600002
-5.84899998 4.83099985 6.28599977
-5.84000015 4.82900000 6.27899981
-5.91099977 4.57900000 6.14900017
-5.91099977 4.59000015 6.15100002
-5.90199995 4.58900023 6.14400005
-5.89699984 4.58799982 6.13500023
-5.91099977 4.59499979 6.14400005
-5.89699984 4.59299994 6.13999987
-5.88999987 4.59200001 6.13199997
-5.88899994 4.60200024 6.13800001
-5.88000011 4.60099983 6.13100004
-5.88399982 4.61299992 6.12500000
-7.10799980 4.67600012 8.17500019
-7.09399986 4.67299986 8.17300034
-7.07299995 4.67799997 8.19400024
-7.06899977 4.68200016 8.19400024
-7.07200003 4.68300009 8.18000031
-7.06099987 4.68100023 8.16300011
-7.06099987 4.69199991 8.16600037
-7.05200005 4.69000006 8.15999985
-7.14300013 4.79799986 8.21399975
-6.44000006 4.78299999 7.32000017
-6.44700003 4.79400015 7.32000017
-6.45499992 4.80499983 7.32299995
-6.45599985 4.81199980 7.32399988
-6.45200014 4.81199980 7.31400013
-6.46099997 4.82299995 7.32600021
-6.45900011 4.83300018 7.32299995
-6.84600019 4.66200018 7.97200012
-6.83599997 4.66400003 7.97599983
-6.75400019 4.71199989 7.88600016
-6.74100018 4.71000004 7.88199997
-6.84899998 4.73899984 7.99100018
-6.73299980 4.71600008 8.04399967
-6.77799988 4.72599983 7.96700001
-6.73000002 4.71799994 7.87900019
-6.85699987 4.74599981 8.01399994
-6.85099983 4.74399996 8.00599957
-6.84299994 4.74300003 8.00000000
-6.83400011 4.74100018 7.99300003
-6.77099991 4.73000002 7.94000006
-6.73500013 4.72399998 7.88000011
-6.72499990 4.72200012 7.87400007
-6.80299997 4.73999977 8.38500023
-6.89499998 4.76300001 8.03100014
-6.88500023 4.76100016 8.02499962
-6.84700012 4.75400019 8.00300026
-6.84000015 4.75299978 7.99599981
-6.80800009 4.74700022 7.96899986
-6.80000019 4.74499989 7.96299982
-6.79500008 4.74499989 7.95400000
-6.77799988 4.74100018 7.94099998
-6.77099991 4.73999977 7.93300009
-6.76300001 4.73899984 7.92700005
-6.75099993 4.73699999 7.91099977
-6.74300003 4.73500013 7.90500021
-6.73299980 4.73400021 7.89900017
-6.72800016 4.73299980 7.88999987
-6.70800018 4.72900009 7.86800003
-6.70499992 4.72900009 7.85799980
-6.68599987 4.72499990 7.83400011
-7.05000019 4.80000019 8.19600010
-6.78000021 4.74599981 8.37100029
-6.77199984 4.74499989 8.36499977
-6.90199995 4.77400017 8.03299999
-6.76300001 4.75000000 7.92299986
-6.75500011 4.74800014 7.91699982
-6.73899984 4.74499989 7.90299988
-6.71600008 4.74100018 7.88299990
-6.70699978 4.73899984 7.87599993
-6.67999983 4.73500013 7.84600019
-6.67199993 4.73299980 7.84000015
-6.66599989 4.73199987 7.83099985
-6.65700006 4.73099995 7.82499981
-6.64699984 4.72900009 7.82000017
-6.64099979 4.72800016 7.81199980
-6.63199997 4.72599983 7.80600023
-6.62599993 4.72499990 7.79799986
-6.61600018 4.72300005 7.79199982
-6.61000013 4.72200012 7.78399992
-6.60200024 4.72100019 7.77799988
-6.59399986 4.71899986 7.76999998
-7.05399990 4.80600023 8.20400047
-7.05399990 4.80600023 8.19200039
-6.77899981 4.75099993 8.37100029
-6.76900005 4.74900007 8.36499977
-6.74900007 4.75199986 7.91900015
-6.74399996 4.75099993 7.90999985
-6.68100023 4.73899984 7.90299988
-6.68400002 4.73999977 7.85400009
-6.67500019 4.73899984 7.84800005
-6.66900015 4.73799992 7.84000015
-6.66200018 4.73699999 7.83199978
-6.65299988 4.73500013 7.82600021
-6.64799976 4.73400021 7.81699991
-6.63999987 4.73299980 7.80999994
-6.63100004 4.73099995 7.80499983
-6.62200022 4.72900009 7.79899979
-6.61499977 4.72800016 7.79099989
-6.60699987 4.72700024 7.78499985
-6.59999990 4.72599983 7.77699995
-6.59200001 4.72399998 7.76999998
-6.58400011 4.72300005 7.76300001
-6.75500011 4.76300001 7.92700005
-6.75000000 4.76200008 7.91900015
-6.65799999 4.74399996 7.93100023
-6.75099993 4.76599979 8.36200047
-6.74499989 4.76499987 8.35299969
-6.75899982 4.77400017 7.93200016
-6.75500011 4.77400017 7.92399979
-6.75400019 4.77299976 8.35799980
-6.74399996 4.77099991 8.35200024
-6.73600006 4.76900005 8.34599972
-6.76000023 4.78000021 7.92899990
-6.65999985 4.76100016 7.94799995
-6.74399996 4.78100014 8.35700035
-6.73899984 4.78000021 8.34799957
-6.72800016 4.77799988 8.34300041
-6.71799994 4.77600002 8.33800030
-6.76100016 4.78999996 7.93300009
-6.65700006 4.76999998 7.95400000
-6.73000002 4.78900003 8.34000015
-6.71500015 4.78599977 8.33800030
-6.71199989 4.78499985 8.32800007
-6.76200008 4.80100012 7.93100023
-6.75500011 4.80000019 7.92399979
-6.65600014 4.78000021 7.96500015
-6.76100016 4.80700016 7.93200016
-6.76000023 4.80700016 7.92100000
-6.65600014 4.78700018 7.96500015
-6.75400019 4.81500006 7.92799997
-6.75600004 4.82499981 7.93300009
-6.65500021 4.80600023 7.97499990
-6.67000008 4.80999994 8.30500031
-6.66200018 4.80900002 8.29800034
-6.75400019 4.83099985 7.93400002
-6.66800022 4.81500006 7.97800016
-6.66499996 4.81899977 8.30099964
-6.65500021 4.81699991 8.29500008
-6.64900017 4.81599998 8.28600025
-6.66499996 4.82299995 7.99700022
-6.74900007 4.84000015 7.92899990
-6.48999977 4.79400015 8.43999958
-6.64799976 4.82499981 8.29500008
-6.63800001 4.82399988 8.28899956
-6.63299990 4.82299995 8.28100014
-6.66499996 4.83300018 7.99200010
-6.40899992 4.78800011 7.85699987
-6.41200018 4.78900003 7.84299994
-6.41200018 4.78900003 7.83099985
-6.41099977 4.78900003 7.82000017
-6.40899992 4.78900003 7.80900002
-6.40700006 4.78900003 7.79799986
-6.40399981 4.78800011 7.78800011
-6.40000010 4.78800011 7.77899981
-6.49300003 4.80200005 8.42700005
-6.74399996 4.85500002 7.91800022
-6.41599989 4.79600000 7.87799978
-6.41499996 4.79600000 7.86600018
-6.41699982 4.79699993 7.85400009
-6.41599989 4.79699993 7.84200001
-6.41300011 4.79600000 7.83199978
-6.41200018 4.79600000 7.82100010
-6.40899992 4.79600000 7.80999994
-6.40500021 4.79500008 7.80100012
-6.40299988 4.79500008 7.79099989
-6.39599991 4.79400015 7.78299999
-6.39099979 4.79300022 7.77400017
-6.38600016 4.79300022 7.76499987
-6.50699997 4.81400013 8.43500042
-6.49900007 4.81300020 8.42899990
-6.49800014 4.81300020 8.41699982
-6.49700022 4.81300020 8.40499973
-6.49499989 4.81300020 8.39400005
-6.61800003 4.83699989 8.27400017
-6.61399984 4.83599997 8.26399994
-6.76399994 4.86800003 7.91099977
-6.74599981 4.86499977 7.90999985
-6.42199993 4.80700016 7.90399981
-6.41900015 4.80600023 7.89400005
-6.42299986 4.80700016 7.87900019
-6.42199993 4.80700016 7.86700010
-6.42000008 4.80700016 7.85699987
-6.41800022 4.80700016 7.84600019
-6.41599989 4.80700016 7.83500004
-6.41300011 4.80600023 7.82600021
-6.40700006 4.80499983 7.81699991
-6.40700006 4.80600023 7.80499983
-6.40000010 4.80399990 7.79799986
-6.39200020 4.80299997 7.79099989
-6.38500023 4.80200005 7.78299999
-6.38299990 4.80200005 7.77199984
-6.49300003 4.82299995 8.37800026
-6.61399984 4.84600019 8.27200031
-6.60699987 4.84499979 8.26399994
-6.59999990 4.84399986 8.25599957
-6.75299978 4.87599993 7.91300011
-6.42399979 4.81699991 7.90999985
-6.42399979 4.81799984 7.89799976
-6.42600012 4.81799984 7.88500023
-6.42299986 4.81799984 7.87400007
-6.42100000 4.81699991 7.86399984
-6.41800022 4.81699991 7.85400009
-6.41300011 4.81599998 7.84399986
-6.41099977 4.81599998 7.83400011
-6.40500021 4.81500006 7.82600021
-6.39900017 4.81400013 7.81799984
-6.39499998 4.81400013 7.80800009
-6.38600016 4.81199980 7.80200005
-6.48999977 4.82800007 8.38099957
-6.60699987 4.85099983 8.26399994
-6.59899998 4.84999990 8.25699997
-6.59200001 4.84899998 8.25000000
-6.76399994 4.88399982 7.91800022
-6.75699997 4.88299990 7.91099977
-6.42299986 4.82299995 7.94700003
-6.42799997 4.82399988 7.92000008
-6.42399979 4.82399988 7.90999985
-6.42500019 4.82399988 7.89799976
-6.42700005 4.82499981 7.88500023
-6.42299986 4.82399988 7.87500000
-6.42000008 4.82399988 7.86499977
-6.41499996 4.82299995 7.85599995
-6.41099977 4.82200003 7.84600019
-6.40500021 4.82100010 7.83799982
-6.40100002 4.82100010 7.82900000
-6.39499998 4.82000017 7.82000017
-6.38600016 4.81799984 7.81400013
-6.49300003 4.83900023 8.38099957
-6.48999977 4.83900023 8.37100029
-6.59499979 4.85900021 8.25100040
-6.58300018 4.85699987 8.24699974
-6.57600021 4.85599995 8.23900032
-6.57000017 4.85500002 8.23099995
-6.76800013 4.89499998 7.91900015
-6.42899990 4.83400011 7.98199987
-6.43100023 4.83400011 7.96899986
-6.43100023 4.83400011 7.95699978
-6.43100023 4.83500004 7.94500017
-6.42999983 4.83500004 7.92100000
-6.42799997 4.83500004 7.90999985
-6.42600012 4.83500004 7.90000010
-6.42299986 4.83400011 7.88999987
-6.42100000 4.83400011 7.87900019
-6.41499996 4.83300018 7.87099981
-6.40899992 4.83199978 7.86299992
-6.40100002 4.83099985 7.85500002
-6.40000010 4.83099985 7.84399986
-6.49399996 4.84999990 8.37800026
-6.48500013 4.84899998 8.37199974
-6.56400013 4.86499977 8.23200035
-6.55800009 4.86399984 8.22299957
-6.55299997 4.86299992 8.21500015
-6.77699995 4.90700006 7.92100000
-6.43499994 4.84499979 7.99900007
-6.43499994 4.84600019 7.98699999
-6.43599987 4.84600019 7.97499990
-6.43400002 4.84600019 7.96400023
-6.43200016 4.84600019 7.95300007
-6.42600012 4.84499979 7.92100000
-6.42299986 4.84399986 7.91099977
-6.41900015 4.84399986 7.90100002
-6.41300011 4.84299994 7.89300013
-6.40700006 4.84200001 7.88399982
-6.40600014 4.84200001 7.87400007
-6.48400021 4.85400009 8.37199974
-6.55800009 4.86899996 8.22299957
-6.55000019 4.86800003 8.21599960
-6.54099989 4.86600018 8.21000004
-6.78299999 4.91400003 7.92899990
-6.78100014 4.91300011 7.91800022
-6.44000006 4.85099983 8.02000046
-6.43800020 4.85099983 8.01000023
-6.43800020 4.85099983 7.99700022
-6.43900013 4.85200024 7.98400021
-6.43900013 4.85200024 7.97300005
-6.43499994 4.85099983 7.96299982
-6.43300009 4.85099983 7.95200014
-6.42500019 4.84999990 7.92100000
-6.41800022 4.84899998 7.91300011
-6.41499996 4.84899998 7.90399981
-6.40799999 4.84700012 7.89599991
-6.40399981 4.84700012 7.88700008
-6.48600006 4.86499977 8.37500000
-6.54799986 4.87799978 8.21000004
-6.53800011 4.87599993 8.20400047
-6.53100014 4.87500000 8.19699955
-6.52299976 4.87400007 8.18999958
-6.44299984 4.86199999 8.05900002
-6.44099998 4.86100006 8.04899979
-6.44299984 4.86199999 8.03499985
-6.44199991 4.86199999 8.02400017
-6.44299984 4.86299992 8.01099968
-6.44099998 4.86199999 8.00000000
-6.43800020 4.86199999 7.98899984
-6.43699980 4.86199999 7.97800016
-6.43300009 4.86100006 7.96899986
-6.42999983 4.86100006 7.95900011
-6.42600012 4.86000013 7.94999981
-6.42100000 4.86000013 7.94000006
-6.41400003 4.85900021 7.92000008
-6.40899992 4.85799980 7.91200018
-6.47300005 4.87200022 8.39599991
-6.48400021 4.87400007 8.37600040
-6.48199987 4.87400007 8.36400032
-6.53000021 4.88500023 8.19699955
-6.52099991 4.88299990 8.18999958
-6.51399994 4.88199997 8.18299961
-6.50500011 4.88100004 8.17700005
-6.44500017 4.87200022 8.08199978
-6.44500017 4.87200022 8.06900024
-6.44700003 4.87200022 8.05599976
-6.44700003 4.87300014 8.04399967
-6.44500017 4.87200022 8.03299999
-6.44500017 4.87300014 8.02099991
-6.44299984 4.87200022 8.01000023
-6.44000006 4.87200022 8.00000000
-6.43599987 4.87099981 7.99100018
-6.43200016 4.87099981 7.98099995
-6.42600012 4.86999989 7.97200012
-6.42000008 4.86899996 7.96400023
-6.41699982 4.86899996 7.95499992
-6.41699982 4.86899996 7.94199991
-6.46799994 4.87599993 8.40100002
-6.48500013 4.88000011 8.36400032
-6.51399994 4.88700008 8.18500042
-6.50600004 4.88600016 8.17800045
-6.49800014 4.88500023 8.17099953
-6.45100021 4.87799978 8.10400009
-6.44799995 4.87699986 8.09399986
-6.44799995 4.87699986 8.08199978
-6.44899988 4.87799978 8.06900024
-6.44899988 4.87799978 8.05700016
-6.44799995 4.87799978 8.04500008
-6.44700003 4.87799978 8.03400040
-6.44500017 4.87799978 8.02299976
-6.44000006 4.87699986 8.01399994
-6.43699980 4.87699986 8.00300026
-6.43300009 4.87599993 7.99399996
-6.42600012 4.87500000 7.98699999
-6.42199993 4.87400007 7.97700024
-6.41599989 4.87400007 7.96799994
-6.41499996 4.87400007 7.95800018
-6.48299980 4.88999987 8.35599995
-6.48299980 4.89099979 8.34399986
-6.29500008 4.85799980 8.32100010
-6.48899984 4.89400005 8.16800022
-6.48199987 4.89300013 8.15999985
-6.47700024 4.89200020 8.15100002
-6.46199989 4.88999987 8.14900017
-6.44799995 4.88700008 8.14500046
-6.45400000 4.88899994 8.12899971
-6.45499992 4.88899994 8.11600018
-6.45699978 4.88899994 8.10299969
-6.45499992 4.88899994 8.09300041
-6.45200014 4.88899994 8.08199978
-6.45100021 4.88899994 8.06999969
-6.44799995 4.88899994 8.06000042
-6.44500017 4.88800001 8.05000019
-6.44600010 4.88800001 8.03699970
-6.44600010 4.88899994 8.02600002
-6.43900013 4.88800001 8.01799965
-6.43100023 4.88600016 8.01099968
-6.42199993 4.88500023 8.00399971
-6.42500019 4.88500023 7.98999977
-6.48500013 4.90100002 8.35000038
-6.47800016 4.90000010 8.34200001
-6.29600000 4.86899996 8.31400013
-6.29300022 4.86800003 8.30399990
-6.48099995 4.90299988 8.16800022
-6.47800016 4.90299988 8.15799999
-6.47300005 4.90199995 8.14900017
-6.46400023 4.90100002 8.14200020
-6.46099997 4.90000010 8.13199997
-6.46000004 4.90000010 8.11999989
-6.45699978 4.90000010 8.10999966
-6.45599985 4.90000010 8.09899998
-6.45300007 4.89900017 8.08899975
-6.44999981 4.89900017 8.07800007
-6.44700003 4.89900017 8.06799984
-6.44399977 4.89799976 8.05700016
-6.44199991 4.89799976 8.04699993
-6.44299984 4.89799976 8.03400040
-6.44199991 4.89900017 8.02299976
-6.42999983 4.89599991 8.01900005
-6.47800016 4.90500021 8.33899975
-6.47700024 4.90500021 8.32600021
-6.46700001 4.90600014 8.17300034
-6.47200012 4.90700006 8.15799999
-6.46899986 4.90600014 8.14799976
-6.46500015 4.90600014 8.13799953
-6.46099997 4.90600014 8.12899971
-6.45800018 4.90500021 8.11900043
-6.45699978 4.90500021 8.10599995
-6.45499992 4.90500021 8.09599972
-6.44999981 4.90399981 8.08699989
-6.44799995 4.90399981 8.07600021
-6.44500017 4.90399981 8.06599998
-6.44000006 4.90299988 8.05700016
-6.43499994 4.90199995 8.04800034
-6.45200014 4.90600014 8.02499962
-6.44399977 4.90399981 8.01799965
-6.47900009 4.91599989 8.32600021
-6.47200012 4.91699982 8.23200035
-6.46999979 4.91599989 8.22099972
-6.46999979 4.91699982 8.20899963
-6.46999979 4.91699982 8.19699955
-6.46999979 4.91699982 8.18400002
-6.46999979 4.91699982 8.17199993
-6.46799994 4.91699982 8.16100025
-6.46799994 4.91699982 8.14900017
-6.46500015 4.91699982 8.13899994
-6.46199989 4.91699982 8.12899971
-6.45800018 4.91599989 8.11900043
-6.45300007 4.91499996 8.10999966
-6.44799995 4.91499996 8.10099983
-6.44299984 4.91400003 8.09200001
-6.43499994 4.91300011 8.08500004
-6.43400002 4.91200018 8.07400036
-6.46099997 4.91800022 8.03199959
-6.45499992 4.91699982 8.02400017
-6.18100023 4.87400007 7.77400017
-6.47900009 4.92799997 8.32400036
-6.48000002 4.92799997 8.31099987
-6.48099995 4.92799997 8.29800034
-6.48199987 4.92799997 8.28499985
-6.47900009 4.92799997 8.27499962
-6.47700024 4.92799997 8.26399994
-6.47599983 4.92799997 8.25199986
-6.47599983 4.92799997 8.23999977
-6.47399998 4.92799997 8.22900009
-6.47499990 4.92799997 8.21599960
-6.47399998 4.92799997 8.20499992
-6.47100019 4.92799997 8.19400024
-6.46999979 4.92799997 8.18200016
-6.46799994 4.92799997 8.17199993
-6.46400023 4.92700005 8.16199970
-6.46299982 4.92700005 8.15100002
-6.45699978 4.92600012 8.14200020
-6.45499992 4.92600012 8.13099957
-6.44999981 4.92500019 8.12300014
-6.44099998 4.92399979 8.11600018
-6.47599983 4.93100023 8.03299999
-6.46400023 4.92899990 8.02799988
-6.19799995 4.88700008 7.80999994
-6.19000006 4.88600016 7.80299997
-6.18699980 4.88500023 7.79300022
-6.18100023 4.88500023 7.78399992
-6.48999977 4.93499994 8.31799984
-6.48600006 4.93400002 8.30799961
-6.48699999 4.93400002 8.29500008
-6.48400021 4.93400002 8.28400040
-6.48299980 4.93400002 8.27299976
-6.48099995 4.93400002 8.26200008
-6.47700024 4.93300009 8.25199986
-6.47700024 4.93300009 8.23999977
-6.47800016 4.93400002 8.22700024
-6.47499990 4.93300009 8.21599960
-6.47200012 4.93300009 8.20699978
-6.46999979 4.93300009 8.19499969
-6.46799994 4.93300009 8.18400002
-6.46500015 4.93200016 8.17399979
-6.46099997 4.93200016 8.16499996
-6.45699978 4.93100023 8.15499973
-6.45200014 4.92999983 8.14599991
-6.45100021 4.93100023 8.13399982
-6.47200012 4.93599987 8.03600025
-6.46500015 4.93400002 8.02799988
-6.17899990 4.88999987 7.78599977
-6.50299978 4.94700003 8.36400032
-6.49599981 4.94600010 8.35599995
-6.49800014 4.94600010 8.34300041
-6.49399996 4.94500017 8.33300018
-6.49300003 4.94600010 8.32199955
-6.49100018 4.94500017 8.31000042
-6.48799992 4.94500017 8.30000019
-6.48600006 4.94500017 8.28899956
-6.48299980 4.94399977 8.27900028
-6.47800016 4.94399977 8.26900005
-6.47900009 4.94399977 8.25699997
-6.47599983 4.94399977 8.24699974
-6.47800016 4.94399977 8.23200035
-6.47599983 4.94399977 8.22200012
-6.47399998 4.94399977 8.21100044
-6.46700001 4.94299984 8.20300007
-6.46299982 4.94199991 8.19400024
-6.45499992 4.94099998 8.18700027
-6.32100010 4.91699982 8.25000000
-6.48000002 4.94799995 8.03600025
-6.47499990 4.94700003 8.02700043
-6.17299986 4.89900017 7.78399992
-6.60599995 4.97399998 8.43000031
-6.60300016 4.97399998 8.41899967
-6.59100008 4.97200012 8.41499996
-6.50899982 4.95699978 8.43400002
-6.50899982 4.95800018 8.42099953
-6.50500011 4.95699978 8.41199970
-6.50500011 4.95699978 8.39900017
-6.50500011 4.95699978 8.38700008
-6.50500011 4.95699978 8.37500000
-6.50299978 4.95699978 8.36400032
-6.50199986 4.95699978 8.35200024
-6.49800014 4.95699978 8.34200001
-6.49399996 4.95599985 8.33199978
-6.49100018 4.95599985 8.32199955
-6.48799992 4.95599985 8.31099987
-6.48299980 4.95499992 8.30300045
-6.48000002 4.95400000 8.29300022
-6.47499990 4.95400000 8.28299999
-6.47100019 4.95300007 8.27299976
-6.46899986 4.95300007 8.26299953
-6.47300005 4.95400000 8.24800014
-6.47200012 4.95400000 8.23600006
-6.46999979 4.95400000 8.22500038
-6.46600008 4.95300007 8.21500015
-6.46000004 4.95200014 8.20800018
-6.45400000 4.95100021 8.19900036
-6.28200006 4.92100000 8.28800011
-6.48899984 4.96000004 8.04199982
-6.48299980 4.95900011 8.03400040
-6.16699982 4.90899992 7.78599977
-6.60200024 4.97800016 8.43400002
-6.56899977 4.97200012 8.44299984
-6.58900023 4.97599983 8.41800022
-6.57900000 4.97399998 8.41199970
-6.51200008 4.96199989 8.44600010
-6.51300001 4.96199989 8.43299961
-6.51000023 4.96199989 8.42199993
-6.50699997 4.96199989 8.41100025
-6.50799990 4.96199989 8.39900017
-6.50600004 4.96199989 8.38700008
-6.50500011 4.96199989 8.37600040
-6.50500011 4.96199989 8.36400032
-6.50000000 4.96099997 8.35499954
-6.49599981 4.96099997 8.34399986
-6.49300003 4.96000004 8.33399963
-6.48699999 4.96000004 8.32600021
-6.48299980 4.95900011 8.31599998
-6.48000002 4.95900011 8.30599976
-6.47700024 4.95800018 8.29599953
-6.47599983 4.95800018 8.28400040
-6.47100019 4.95800018 8.27499962
-6.47100019 4.95800018 8.26299953
-6.47200012 4.95800018 8.24899960
-6.47200012 4.95800018 8.23700047
-6.46899986 4.95800018 8.22700024
-6.46299982 4.95699978 8.21899986
-6.45599985 4.95599985 8.21100044
-6.45300007 4.95599985 8.20100021
-6.28200006 4.92600012 8.28899956
-6.50299978 4.96700001 8.04599953
-6.49100018 4.96400023 8.04199982
-6.16599989 4.91400003 7.78800011
-6.54899979 4.97900009 8.42399979
-6.52500010 4.97499990 8.42899990
-6.51399994 4.97300005 8.42300034
-6.51000023 4.97300005 8.41300011
-6.50799990 4.97200012 8.40299988
-6.50600004 4.97200012 8.39099979
-6.50500011 4.97200012 8.38000011
-6.50500011 4.97200012 8.36699963
-6.49700022 4.97100019 8.35999966
-6.49100018 4.96999979 8.35200024
-6.48699999 4.96999979 8.34200001
-6.46199989 4.96700001 8.26000023
-6.46700001 4.96799994 8.24400043
-6.46600008 4.96799994 8.23299980
-6.46000004 4.96700001 8.22500038
-6.44899988 4.96500015 8.22000027
-6.50099993 4.97599983 8.05200005
-6.49700022 4.97599983 8.04100037
-6.16800022 4.92500019 7.80299997
-6.16800022 4.92399979 7.79099989
-6.51599979 4.98400021 8.44400024
-6.51499987 4.98400021 8.43299961
-6.53900003 4.98899984 8.40299988
-6.53000021 4.98699999 8.39799976
-6.52500010 4.98699999 8.38899994
-6.52400017 4.98699999 8.37699986
-6.51499987 4.98500013 8.37100029
-6.46199989 4.97800016 8.27099991
-6.46400023 4.97800016 8.25699997
-6.46400023 4.97800016 8.24400043
-6.46099997 4.97800016 8.23400021
-6.44999981 4.97700024 8.22900009
-6.51599979 4.98999977 8.06299973
-6.50699997 4.98899984 8.05700016
-6.50600004 4.98899984 8.04599953
-6.17199993 4.93699980 7.80999994
-6.17199993 4.93699980 7.79799986
-6.51200008 4.98899984 8.44600010
-6.50799990 4.98799992 8.43599987
-6.50799990 4.98799992 8.42300034
-6.53900003 4.99399996 8.38899994
-6.53299999 4.99300003 8.38099957
-6.52400017 4.99200010 8.37500000
-6.45900011 4.98199987 8.27000046
-6.46400023 4.98299980 8.25399971
-6.46199989 4.98299980 8.24400043
-6.45599985 4.98299980 8.23499966
-6.44199991 4.98000002 8.23299980
-6.51499987 4.99499989 8.06200027
-6.50799990 4.99399996 8.05500031
-6.17299986 4.94199991 7.82000017
-6.16599989 4.94000006 7.81199980
-6.46099997 4.99200010 8.28100014
-6.46099997 4.99300003 8.26799965
-6.46000004 4.99300003 8.25599957
-6.45599985 4.99200010 8.24699974
-6.44500017 4.99100018 8.24199963
-6.52500010 5.00600004 8.06700039
-6.51900005 5.00600004 8.05900002
-6.45699978 5.00299978 8.28199959
-6.45800018 5.00299978 8.26900005
-6.45599985 5.00299978 8.25800037
-6.44899988 5.00199986 8.25100040
-6.54199982 5.01999998 8.07900047
-6.53499985 5.01800013 8.07199955
-6.52799988 5.01800013 8.06400013
-6.45499992 5.00799990 8.28800011
-6.45800018 5.00799990 8.27299976
-6.45300007 5.00799990 8.26399994
-6.44899988 5.00699997 8.25399971
-6.55399990 5.02699995 8.08699989
-6.54500008 5.02600002 8.08199978
-6.53499985 5.02400017 8.07600021
-6.53000021 5.02299976 8.06700039
-6.45300007 5.01800013 8.30500031
-6.45699978 5.01900005 8.28999996
-6.45400000 5.01800013 8.27999973
-6.44999981 5.01800013 8.27000046
-6.44099998 5.01599979 8.26399994
-6.56599998 5.03999996 8.09500027
-6.55499983 5.03800011 8.09000015
-6.55200005 5.03700018 8.08100033
-6.45200014 5.02799988 8.31099987
-6.45499992 5.02899981 8.29699993
-6.44899988 5.02799988 8.28800011
-6.44500017 5.02699995 8.27799988
-6.43800020 5.02600002 8.27099991
-6.56300020 5.04899979 8.10200024
-6.55900002 5.04899979 8.09300041
-6.44700003 5.03299999 8.32299995
-6.45100021 5.03399992 8.30700016
-6.45100021 5.03399992 8.29500008
-6.44600010 5.03399992 8.28600025
-6.44099998 5.03299999 8.27700043
-6.56699991 5.05600023 8.10799980
-6.56300020 5.05499983 8.09899998
-6.44700003 5.04300022 8.33600044
-6.44999981 5.04400015 8.32199955
-6.44899988 5.04400015 8.31000042
-6.44399977 5.04300022 8.30099964
-6.43800020 5.04199982 8.29199982
-6.57900000 5.06799984 8.11299992
-6.56799984 5.06599998 8.10799980
-6.44500017 5.05200005 8.34599972
-6.44799995 5.05299997 8.33100033
-6.44700003 5.05299997 8.31900024
-6.44299984 5.05200005 8.31000042
-6.43599987 5.05200005 8.30200005
-6.58900023 5.07900000 8.11499977
-6.57700014 5.07700014 8.10999966
-6.44199991 5.05800009 8.35900021
-6.44600010 5.05900002 8.34399986
-6.44700003 5.05900002 8.33100033
-6.44500017 5.05900002 8.31999969
-6.44000006 5.05800009 8.31099987
-6.43200016 5.05700016 8.30399990
-6.58500004 5.08400011 8.11600018
-6.58300018 5.08400011 8.10599995
-6.44399977 5.06799984 8.36200047
-6.44600010 5.06799984 8.34899998
-6.44399977 5.06799984 8.33699989
-6.44000006 5.06799984 8.32699966
-6.43300009 5.06699991 8.31999969
-6.59800005 5.09600019 8.12399960
-6.58900023 5.09499979 8.11800003
-6.44399977 5.07800007 8.37199974
-6.44399977 5.07800007 8.35900021
-6.44199991 5.07800007 8.34899998
-6.43900013 5.07700014 8.33800030
-6.42999983 5.07600021 8.33100033
-6.60599995 5.10699987 8.12800026
-6.59600019 5.10500002 8.12300014
-6.43900013 5.08300018 8.38500023
-6.44299984 5.08400011 8.36999989
-6.44000006 5.08400011 8.35999966
-6.43900013 5.08300018 8.34799957
-6.43100023 5.08199978 8.34099960
-6.60900021 5.11399984 8.13599968
-6.60400009 5.11299992 8.12800026
-6.44099998 5.09299994 8.39599991
-6.44399977 5.09399986 8.38099957
-6.44099998 5.09399986 8.37100029
-6.43400002 5.09299994 8.36200047
-6.42899990 5.09200001 8.35400009
-6.61600018 5.12500000 8.14200020
-6.60799980 5.12300014 8.13599968
-6.43699980 5.10300016 8.41800022
-6.43800020 5.10300016 8.40400028
-6.44099998 5.10400009 8.39000034
-6.43900013 5.10400009 8.37800026
-6.43200016 5.10300016 8.37100029
-6.42799997 5.10200024 8.36100006
-6.62900019 5.13700008 8.15200043
-6.61800003 5.13500023 8.14799976
-6.61100006 5.13399982 8.14099979
-6.44000006 5.10900021 8.42599964
-6.44399977 5.11000013 8.40999985
-6.44099998 5.11000013 8.39999962
-6.43599987 5.10900021 8.39099979
-6.43300009 5.10900021 8.38099957
-6.42500019 5.10799980 8.37399960
-6.62799978 5.14200020 8.18799973
-6.62599993 5.14200020 8.17700005
-6.62699986 5.14200020 8.16399956
-6.62400007 5.14200020 8.15400028
-6.62099981 5.14099979 8.14500046
-6.43699980 5.11899996 8.44299984
-6.43900013 5.11899996 8.42899990
-6.43200016 5.11899996 8.39599991
-6.42399979 5.11800003 8.38899994
-6.64300013 5.15500021 8.16800022
-6.63500023 5.15399981 8.16100025
-6.43900013 5.12900019 8.44200039
-6.43699980 5.12900019 8.43099976
-6.43599987 5.12900019 8.41899967
-6.65199995 5.16599989 8.17500019
-6.64300013 5.16499996 8.16800022
-6.63700008 5.16400003 8.16100025
-6.43900013 5.13500023 8.44499969
-6.43900013 5.13500023 8.43200016
-6.43400002 5.13500023 8.42199993
-6.43599987 5.13500023 8.40900040
-6.65000010 5.17100000 8.17800045
-6.64499998 5.17100000 8.16899967
-6.43800020 5.14499998 8.44900036
-6.43499994 5.14499998 8.43799973
-6.42999983 5.14400005 8.43000031
-6.42399979 5.14400005 8.42099953
-6.67999983 5.18499994 8.22200012
-6.67600012 5.18499994 8.21399975
-6.67500019 5.18499994 8.20199966
-6.66400003 5.18300009 8.18500042
-6.65399981 5.18200016 8.18000031
-6.43400002 5.15500021 8.44799995
-6.42799997 5.15399981 8.43999958
-6.42399979 5.15299988 8.43000031
-6.67299986 5.19500017 8.19999981
-6.67000008 5.19399977 8.18999958
-6.66699982 5.19399977 8.18000031
-6.42799997 5.15899992 8.44999981
-6.42500019 5.15899992 8.43999958
-6.67700005 5.20100021 8.19499969
-6.67299986 5.19999981 8.18599987
-6.68499994 5.21199989 8.20199966
-6.68200016 5.21099997 8.19200039
-6.69899988 5.22399998 8.21199989
-6.69099998 5.22300005 8.20600033
-6.70800018 5.23000002 8.24400043
-6.70599985 5.23000002 8.23400021
-6.70400000 5.23000002 8.22299957
-6.69600010 5.22900009 8.21599960
-6.69600010 5.22900009 8.20400047
-6.71600008 5.24200010 8.21899986
-6.70499992 5.23999977 8.21500015
-6.73600006 5.25500011 8.21899986
-6.72300005 5.25299978 8.21500015
-6.75099993 5.26300001 8.22299957
-6.74200010 5.26200008 8.21599960
-6.75400019 5.27299976 8.23299980
-6.69399977 4.19899988 6.40500021
-6.67899990 4.19500017 6.40199995
-6.67700005 4.20599985 6.40000010
-6.65799999 4.20200014 6.39799976
-6.65199995 4.20599985 6.39900017
-6.64200020 4.20300007 6.39300013
-6.64599991 4.21500015 6.39300013
-6.63600016 4.21299982 6.38800001
-6.62300014 4.22599983 6.38399982
-6.61700010 4.23500013 6.38800001
-6.53200006 4.21500015 6.38899994
-6.62200022 4.24599981 6.39599991
-6.62099981 4.24599981 6.38500023
-6.62300014 4.25199986 6.40700006
-6.62200022 4.25199986 6.39699984
-6.63600016 4.26399994 6.42899990
-6.63100004 4.26399994 6.42000008
-6.62900019 4.26300001 6.41099977
-6.59200001 4.27199984 6.38000011
-6.58400011 4.28000021 6.40799999
-6.58500004 4.28000021 6.39699984
-6.47900009 4.34800005 6.39099979
-6.48699999 4.35500002 6.40000010
-6.47800016 4.35300016 6.39300013
-6.47599983 4.35300016 6.38399982
-6.49200010 4.36600018 6.41200018
-6.48999977 4.36600018 6.40199995
-6.49100018 4.37699986 6.42000008
-6.48999977 4.38199997 6.41900015
-6.44899988 4.38299990 6.46299982
-6.47100019 4.38800001 6.44000006
-6.48600006 4.39200020 6.42100000
-6.49399996 4.40399981 6.44500017
-6.48799992 4.40299988 6.43699980
-6.48400021 4.40199995 6.42799997
-6.42799997 4.38999987 6.44600010
-6.42000008 4.38800001 6.44000006
-6.40999985 4.38600016 6.43400002
-6.40199995 4.38399982 6.42799997
-6.37599993 4.37900019 6.39699984
-6.49700022 4.40999985 6.44199991
-6.49399996 4.40999985 6.43300009
-6.41300011 4.39200020 6.43100023
-6.39900017 4.38899994 6.42799997
-6.38899994 4.38700008 6.42199993
-6.38199997 4.38600016 6.41400003
-6.37699986 4.38500023 6.40600014
-6.37200022 4.38399982 6.39799976
-6.48899984 4.41800022 6.45100021
-6.49100018 4.41900015 6.43900013
-6.31300020 4.38100004 6.43200016
-6.49700022 4.42999983 6.45599985
-6.31099987 4.39099979 6.43200016
-6.31699991 4.39799976 6.42799997
-6.32200003 4.40999985 6.42899990
-6.31500006 4.40899992 6.38899994
-6.18100023 4.37900019 7.06300020
-6.32399988 4.42100000 6.41499996
-6.32800007 4.42199993 6.40199995
-6.31699991 4.42000008 6.39599991
-6.31199980 4.41900015 6.38800001
-6.19199991 4.38800001 7.05700016
-6.18599987 4.38700008 7.04899979
-6.33199978 4.42899990 6.40000010
-6.19500017 4.40000010 7.04699993
-6.22300005 4.41599989 7.06199980
-6.19899988 4.41099977 7.05200005
-6.21799994 4.42100000 7.06400013
-6.21400023 4.42100000 7.05600023
-6.20200014 4.41800022 7.05100012
-6.21600008 4.43100023 7.05900002
-6.21199989 4.44099998 7.05700016
-6.21600008 4.44799995 7.06300020
-6.21600008 4.45800018 7.06599998
-6.20699978 4.46700001 7.06799984
-6.21199989 4.47399998 7.07600021
-6.21000004 4.47300005 7.06599998
-6.20400000 4.48199987 7.08400011
-6.20699978 4.48299980 7.07200003
-6.02099991 4.45699978 6.40199995
-6.44700003 4.54199982 7.15199995
-6.19799995 4.49200010 7.08699989
-6.02199984 4.46799994 6.40100002
-6.45200014 4.54799986 7.15100002
-6.44299984 4.54699993 7.14400005
-6.19600010 4.49800014 7.09000015
-6.02799988 4.47599983 6.39900017
-6.28800011 4.52199984 7.40999985
-6.42799997 4.55499983 7.14300013
-6.18400002 4.50600004 7.08599997
-6.28800011 4.53200006 7.40500021
-6.28499985 4.53200006 7.39499998
-6.41400003 4.56199980 7.14699984
-6.17399979 4.51499987 7.08699989
-6.28700018 4.53700018 7.41400003
-6.28499985 4.53700018 7.40299988
-6.28000021 4.53599977 7.39400005
-6.41599989 4.56699991 7.15399981
-6.40600014 4.56599998 7.14799976
-6.13399982 4.51100016 7.13000011
-6.15700006 4.51599979 7.10500002
-6.16900015 4.51900005 7.08699989
-6.28800011 4.54899979 7.40399981
-6.28100014 4.54799986 7.39599991
-6.27799988 4.54699993 7.38600016
-6.27199984 4.54600000 7.37799978
-6.40399981 4.57600021 7.15100002
-6.10500002 4.51499987 7.22900009
-6.11499977 4.51800013 7.15399981
-6.11899996 4.51999998 7.13999987
-6.14900017 4.52600002 7.11100006
-6.15899992 4.52799988 7.09499979
-6.15600014 4.52799988 7.08400011
-6.28000021 4.55800009 7.39200020
-6.27400017 4.55700016 7.38399982
-6.27099991 4.55600023 7.37500000
-6.39699984 4.58500004 7.15100002
-6.10200024 4.52600002 7.21500015
-6.09999990 4.52500010 7.20499992
-6.09700012 4.52500010 7.19500017
-6.09200001 4.52400017 7.18599987
-6.09800005 4.52500010 7.17100000
-6.10799980 4.52799988 7.15399981
-6.15799999 4.53900003 7.09100008
-6.15100002 4.53700018 7.08400011
-6.27199984 4.56199980 7.37200022
-6.26700020 4.56099987 7.36299992
-6.39200020 4.58900023 7.15199995
-6.10799980 4.53200006 7.21000004
-6.10099983 4.53000021 7.20200014
-6.09600019 4.53000021 7.19299984
-6.15799999 4.54400015 7.08900023
-6.14900017 4.54199982 7.08199978
-6.38800001 4.59899998 7.15600014
-6.30399990 4.58300018 7.13500023
-6.29600000 4.58199978 7.12799978
-6.14400005 4.55299997 7.07600021
-6.28399992 4.59000015 7.14400005
-6.13999987 4.56199980 7.07499981
-6.28800011 4.59600019 7.14099979
-6.13600016 4.56699991 7.07600021
-6.13100004 4.56599998 7.06799984
-6.13199997 4.57800007 7.06899977
-6.12799978 4.57700014 7.05999994
-6.12500000 4.58799982 7.06799984
-6.12300014 4.58699989 7.05800009
-6.11999989 4.59200001 7.05900002
-6.22900009 4.63700008 7.25099993
-6.22399998 4.63600016 7.24200010
-6.29300022 4.65700006 7.40500021
-6.27899981 4.65399981 7.40199995
-6.29300022 4.65799999 7.38199997
-6.27699995 4.66499996 7.38700008
-6.27199984 4.66400003 7.37900019
-6.26999998 4.66400003 7.36800003
-6.26499987 4.66400003 7.35900021
-6.26300001 4.66300011 7.34899998
-6.28499985 4.67100000 7.41699982
-6.27099991 4.66900015 7.37799978
-6.27099991 4.67000008 7.36600018
-6.26700020 4.66900015 7.35699987
-6.26100016 4.66800022 7.34899998
-6.25799990 4.66800022 7.33799982
-6.25400019 4.66699982 7.32900000
-6.25099993 4.66699982 7.32000017
-6.24599981 4.66599989 7.31099987
-6.24499989 4.66599989 7.30000019
-6.24200010 4.66499996 7.28999996
-6.28399992 4.68200016 7.41699982
-6.28200006 4.68200016 7.40700006
-6.27899981 4.68100023 7.39699984
-6.26499987 4.67899990 7.36999989
-6.26399994 4.67899990 7.35900021
-6.26000023 4.67799997 7.34899998
-6.25600004 4.67799997 7.34000015
-6.25199986 4.67700005 7.33099985
-6.24800014 4.67700005 7.32100010
-6.24399996 4.67600012 7.31199980
-6.24100018 4.67500019 7.30200005
-6.23799992 4.67500019 7.29199982
-6.23199987 4.67399979 7.28399992
-6.22800016 4.67299986 7.27500010
-6.23099995 4.67399979 7.26100016
-6.23400021 4.67500019 7.24800014
-6.21500015 4.67100000 7.24700022
-6.20699978 4.67000008 7.24100018
-6.19899988 4.66900015 7.23299980
-6.27699995 4.69099998 7.41800022
-6.27500010 4.69099998 7.40700006
-6.26999998 4.69000006 7.39799976
-6.26399994 4.69000006 7.38999987
-6.25299978 4.68800020 7.36199999
-6.25000000 4.68699980 7.35200024
-6.24599981 4.68699980 7.34200001
-6.24300003 4.68699980 7.33199978
-6.23899984 4.68599987 7.32299995
-6.23600006 4.68499994 7.31300020
-6.23000002 4.68499994 7.30499983
-6.23099995 4.68499994 7.29300022
-6.25799990 4.69099998 7.25400019
-6.24800014 4.68900013 7.24900007
-6.02199984 4.64499998 7.34299994
-6.00600004 4.64200020 7.34000015
-6.11800003 4.66699982 7.12500000
-6.11999989 4.66699982 7.11199999
-6.11999989 4.66699982 7.10099983
-6.12099981 4.66800022 7.08900023
-6.11700010 4.66699982 7.07900000
-6.11600018 4.66699982 7.06899977
-6.10799980 4.66599989 7.06099987
-6.10500002 4.66499996 7.05200005
-6.10099983 4.66499996 7.04199982
-6.09999990 4.66499996 7.03200006
-6.09999990 4.66499996 7.01999998
-6.09700012 4.66400003 7.01000023
-6.26999998 4.69600010 7.40799999
-6.26499987 4.69500017 7.39900017
-6.25600004 4.69399977 7.39300013
-6.25099993 4.69299984 7.36100006
-6.24300003 4.69199991 7.35400009
-6.23799992 4.69099998 7.34499979
-6.23400021 4.69099998 7.33599997
-6.23099995 4.69000006 7.32600021
-6.25899982 4.69700003 7.25099993
-6.00600004 4.64799976 7.33799982
-6.09899998 4.66900015 7.13399982
-6.09700012 4.66800022 7.12300014
-6.09700012 4.67000008 7.03100014
-6.08900023 4.66900015 7.02400017
-6.08900023 4.66900015 7.01300001
-6.08300018 4.66800022 7.00500011
-6.08099985 4.66800022 6.99399996
-6.07999992 4.66800022 6.98299980
-6.41699982 4.73600006 7.29099989
-6.40299988 4.73299980 7.28800011
-6.39200020 4.73199987 7.28299999
-6.38399982 4.73000002 7.27600002
-6.34200001 4.72200012 7.27699995
-6.34299994 4.72300005 7.26499987
-6.33199978 4.72100019 7.26000023
-6.31099987 4.71700001 7.26100016
-6.29799986 4.71500015 7.25600004
-6.27699995 4.71099997 7.25699997
-6.26599979 4.70900011 7.25199986
-6.08799982 4.67700005 7.14400005
-6.08300018 4.67600012 7.13500023
-6.06400013 4.67600012 6.97300005
-6.05800009 4.67500019 6.96500015
-6.05600023 4.67500019 6.95499992
-6.05700016 4.67500019 6.94299984
-6.05200005 4.67399979 6.93400002
-6.05200005 4.67399979 6.92199993
-6.44199991 4.75099993 7.29799986
-6.42399979 4.74800014 7.29799986
-6.41400003 4.74599981 7.29199982
-6.22499990 4.71000004 7.36700010
-6.35300016 4.73500013 7.26900005
-6.34200001 4.73299980 7.26499987
-6.32499981 4.73000002 7.26300001
-6.31400013 4.72800016 7.25799990
-6.29600000 4.72499990 7.25699997
-6.28000021 4.72200012 7.25400019
-5.98899984 4.66599989 7.32700014
-5.97300005 4.66400003 7.32399988
-6.07700014 4.68599987 7.14900017
-6.04600000 4.68400002 6.93599987
-6.04099989 4.68300009 6.92799997
-6.03700018 4.68200016 6.91800022
-6.03700018 4.68200016 6.90600014
-6.03499985 4.68200016 6.89599991
-6.03399992 4.68200016 6.88500023
-6.03200006 4.68200016 6.87500000
-6.03100014 4.68200016 6.86399984
-6.43699980 4.75600004 7.30200005
-6.42500019 4.75400019 7.29699993
-6.21700001 4.71500015 7.37200022
-6.21600008 4.71500015 7.36100006
-5.97499990 4.67100000 7.32299995
-6.07100010 4.69099998 7.15199995
-6.03299999 4.68800020 6.90899992
-6.02699995 4.68800020 6.88999987
-6.02500010 4.68699980 6.87900019
-6.02400017 4.68800020 6.86800003
-6.02299976 4.68699980 6.85699987
-6.01999998 4.68699980 6.84700012
-6.02199984 4.68800020 6.83500004
-6.01900005 4.68699980 6.82600021
-6.43499994 4.76599979 7.30600023
-6.21299982 4.72399998 7.37699986
-6.21299982 4.72399998 7.36600018
-5.97399998 4.68100023 7.31500006
-6.05600023 4.69799995 7.16400003
-5.95800018 4.68300009 7.02099991
-5.90399981 4.67399979 6.96999979
-5.98299980 4.68900013 6.89300013
-5.99300003 4.69199991 6.87599993
-6.00899982 4.69500017 6.85599995
-6.00699997 4.69500017 6.84600019
-6.00600004 4.69500017 6.83500004
-6.00799990 4.69500017 6.82299995
-6.00400019 4.69500017 6.81300020
-6.00199986 4.69500017 6.80299997
-6.00199986 4.69500017 6.79099989
-5.99900007 4.69399977 6.78200006
-5.99700022 4.69399977 6.77199984
-5.99399996 4.69399977 6.76100016
-5.99100018 4.69299984 6.75199986
-5.97900009 4.69199991 6.69000006
-6.44199991 4.77699995 7.31899977
-6.43800020 4.77600002 7.30999994
-6.20699978 4.73199987 7.38700008
-6.21199989 4.73400021 7.37300014
-5.97300005 4.69099998 7.30999994
-6.04400015 4.70599985 7.17700005
-6.05000019 4.70699978 7.16200018
-5.95100021 4.69099998 7.01999998
-5.90899992 4.68499994 6.96199989
-5.96999979 4.69700003 6.91699982
-5.97200012 4.69799995 6.90500021
-5.97399998 4.69799995 6.89200020
-6.00199986 4.70400000 6.82000017
-5.99800014 4.70400000 6.81199980
-5.99100018 4.70300007 6.80399990
-5.99100018 4.70300007 6.79199982
-5.98999977 4.70300007 6.78200006
-5.98999977 4.70300007 6.76999998
-5.98799992 4.70300007 6.76000023
-5.99200010 4.70400000 6.74700022
-5.97800016 4.70200014 6.71999979
-5.97499990 4.70100021 6.71000004
-5.97100019 4.70100021 6.70100021
-5.96600008 4.69999981 6.69199991
-5.96299982 4.69999981 6.68200016
-5.96000004 4.69899988 6.67299986
-5.95300007 4.69899988 6.65399981
-5.94799995 4.69799995 6.64499998
-5.94099998 4.69700003 6.61499977
-5.93400002 4.69600010 6.60699987
-5.92899990 4.69500017 6.59800005
-5.92299986 4.69399977 6.59000015
-5.91699982 4.69299984 6.58199978
-5.91099977 4.69199991 6.57399988
-5.90399981 4.69099998 6.56599998
-5.89799976 4.69000006 6.55800009
-6.20300007 4.73799992 7.40100002
-6.20300007 4.73799992 7.38999987
-5.97300005 4.69799995 7.31099987
-6.03299999 4.71099997 7.18300009
-5.94600010 4.69799995 7.02299976
-5.95599985 4.70100021 6.94799995
-5.96099997 4.70200014 6.93400002
-5.96600008 4.70300007 6.92000008
-5.98199987 4.70800018 6.77500010
-5.97900009 4.70800018 6.76499987
-5.97599983 4.70800018 6.73299980
-5.97300005 4.70800018 6.72300005
-5.97100019 4.70699978 6.71299982
-5.96799994 4.70699978 6.70300007
-5.96299982 4.70599985 6.69399977
-5.95900011 4.70599985 6.68499994
-5.95599985 4.70499992 6.67500019
-5.95499992 4.70499992 6.66400003
-5.95100021 4.70499992 6.65500021
-5.94999981 4.70499992 6.64400005
-5.94500017 4.70499992 6.62400007
-5.93800020 4.70300007 6.61700010
-5.93499994 4.70300007 6.60699987
-5.92999983 4.70200014 6.59800005
-5.92500019 4.70100021 6.59000015
-5.91800022 4.69999981 6.58199978
-5.91200018 4.69899988 6.57399988
-5.90899992 4.69899988 6.56400013
-5.90100002 4.69799995 6.55700016
-6.19600010 4.74700022 7.40899992
-6.19700003 4.74700022 7.39699984
-5.97499990 4.70800018 7.30200005
-5.96999979 4.70800018 7.29300022
-6.01900005 4.71799994 7.19500017
-6.01399994 4.71700001 7.18599987
-5.93800020 4.70599985 7.01900005
-5.94600010 4.70800018 6.99200010
-5.95300007 4.71000004 6.97599983
-5.95599985 4.71000004 6.96299982
-5.95599985 4.71099997 6.95200014
-5.96400023 4.71600008 6.74200010
-5.96500015 4.71600008 6.73099995
-5.96299982 4.71600008 6.71999979
-5.95800018 4.71500015 6.71199989
-5.95300007 4.71400023 6.70300007
-5.95100021 4.71400023 6.69299984
-5.94899988 4.71400023 6.68200016
-5.94899988 4.71400023 6.67199993
-5.94500017 4.71400023 6.66200018
-5.94299984 4.71400023 6.65100002
-5.93800020 4.71299982 6.63199997
-5.93400002 4.71199989 6.62200022
-5.93400002 4.71299982 6.61100006
-5.92799997 4.71199989 6.60300016
-5.92299986 4.71099997 6.59399986
-5.91599989 4.71000004 6.58599997
-5.91300011 4.70900011 6.57700014
-5.90899992 4.70900011 6.56699991
-5.90500021 4.70800018 6.55800009
-5.90199995 4.70800018 6.54899979
-5.97300005 4.73600006 7.25899982
-5.97800016 4.73699999 7.24499989
-5.98299980 4.73799992 7.23000002
-5.94500017 4.73400021 7.05299997
-5.94199991 4.73400021 7.04300022
-5.94899988 4.73600006 7.02799988
-5.98000002 4.74800014 6.63500023
-5.94299984 4.73999977 7.32999992
-5.94799995 4.74100018 7.31599998
-5.94899988 4.74200010 7.30299997
-5.95300007 4.74300003 7.28900003
-5.96400023 4.74499989 7.27099991
